9.918823249,-84.10656738,36.2898,23,6,2,0
9.919028289,-84.10659790,80.1634,23,6,2,0
9.919137959,-84.10662078,43.9779,23,6,2,0
9.919252399,-84.10665130,45.6323,23,6,2,0
9.919366839,-84.10666656,44.7260,23,6,2,0
9.919483189,-84.10668945,46.2779,23,6,2,1
9.919603349,-84.10671234,47.3927,23,6,2,0
9.919853219,-84.10675811,98.8333,23,6,2,0
9.919984819,-84.10678100,51.6477,23,6,2,0
9.920123109,-84.10681915,55.9422,23,6,2,0
9.920268059,-84.10684204,56.8958,23,6,2,0
9.920419699,-84.10686492,59.5971,23,6,2,0
9.920577049,-84.10689544,61.8830,23,6,2,0
9.920902259,-84.10694885,128.0155,23,6,2,0
9.921067239,-84.10698699,65.6223,23,6,2,0
9.921230319,-84.10701751,64.6480,23,6,2,185
9.921384819,-84.10704803,60.9030,23,6,2,0
9.921538359,-84.10707855,60.7575,23,6,2,0
9.921689989,-84.10710906,59.9235,23,6,2,0
9.921839719,-84.10716247,61.6604,23,6,2,159
9.922138219,-84.10725402,120.8898,23,6,2,0
9.922286989,-84.10732269,64.4408,23,6,2,0
9.922431949,-84.10738372,60.1037,23,6,3,0
9.922572139,-84.10746765,64.0995,23,6,3,0
9.922712329,-84.10754394,61.4915,23,6,3,0
9.922846799,-84.10762023,59.7403,23,6,3,78
9.922977449,-84.10771942,64.0914,23,6,3,0
9.923225409,-84.10791015,120.7948,23,6,3,0
9.923342709,-84.10802459,61.9644,23,6,3,0
9.923457149,-84.10814666,64.6843,23,6,3,0
9.923563009,-84.10826110,60.5121,23,6,3,0
9.923667909,-84.10838317,62.2367,23,6,3,0
9.923767089,-84.10852050,64.8705,23,6,3,0
9.923948289,-84.10879516,125.9242,23,6,3,0
9.924030309,-84.10893249,61.1740,23,6,3,0
9.924112319,-84.10907745,63.4195,23,6,3,0
9.924193389,-84.10923004,67.8347,23,6,3,2
9.924277309,-84.10937500,63.7547,23,6,3,0
9.924358369,-84.10951995,63.2538,23,6,3,0
9.924516679,-84.10980987,128.1363,23,6,3,0
9.924594879,-84.10995483,62.5435,23,6,3,0
9.924672129,-84.11008453,58.0244,23,6,3,25
9.924747469,-84.11022186,59.7792,23,6,3,0
9.924819949,-84.11035156,57.0177,23,6,3,0
9.924892429,-84.11048126,57.0177,23,6,3,0
9.924962049,-84.11061096,56.3755,23,6,3,14
9.925102239,-84.11085510,108.6848,23,6,3,0
9.925171859,-84.11098480,56.3754,23,6,3,0
9.925243379,-84.11110687,54.5938,23,6,3,0
9.925308229,-84.11122131,48.7543,23,6,3,0
9.925370219,-84.11133575,50.5243,23,6,3,0
9.925424579,-84.11143493,44.3585,23,6,3,0
9.925477029,-84.11152648,39.6557,23,6,3,0
9.925569539,-84.11169433,74.4032,23,6,3,0
9.925617219,-84.11178588,38.6642,23,6,3,0
9.925662999,-84.11186218,33.6475,23,6,3,0
9.925706869,-84.11194610,35.7390,23,6,3,0
9.925749779,-84.11202239,35.4246,23,6,3,0
9.925792699,-84.11210632,35.4246,23,6,3,0
9.925834659,-84.11217498,30.9070,23,6,3,0
9.925900459,-84.11228942,51.1713,23,6,3,0
9.925927169,-84.11233520,18.7237,23,6,3,0
9.925951959,-84.11237335,18.3689,23,6,3,0
9.925972939,-84.11241912,20.0565,23,6,3,0
9.925992019,-84.11245727,14.9448,23,6,3,0
9.926010139,-84.11248779,14.7861,23,6,3,0
9.926034929,-84.11252593,16.2018,23,6,3,0
9.926047329,-84.11254882,11.5605,23,6,3,0
9.926056869,-84.11257171,8.6351,23,6,3,0
9.926062589,-84.11257934,3.4906,23,6,3,0
9.926068309,-84.11258697,3.2801,23,6,3,0
9.926070219,-84.11258697,0.6623,23,6,3,0
9.926068309,-84.11258697,0.6630,23,6,3,0
9.926068309,-84.11258697,0.0000,23,6,3,0
9.926068309,-84.11258697,0.0000,23,6,4,0
9.926068309,-84.11258697,0.0000,23,6,4,0
9.926068309,-84.11258697,0.0000,23,6,4,0
9.926068309,-84.11258697,0.0000,23,6,4,0
9.926068309,-84.11258697,0.0000,23,6,4,0
9.926068309,-84.11258697,0.0000,23,6,4,0
9.926072129,-84.11258697,1.6559,23,6,4,0
9.926072129,-84.11258697,0.0000,23,6,4,0
9.926074989,-84.11259460,2.7924,23,6,4,0
9.926088339,-84.11261749,11.7066,23,6,4,0
9.926110269,-84.11265563,15.4685,23,6,4,0
9.926136979,-84.11270141,21.1397,23,6,4,0
9.926210409,-84.11283111,57.2372,23,6,4,0
9.926258089,-84.11292266,38.7017,23,6,4,30
9.926312449,-84.11300659,39.8667,23,6,4,4
9.926367759,-84.11311340,44.7171,23,6,4,0
9.926427849,-84.11322021,47.8051,23,6,4,0
9.926491739,-84.11334228,53.1884,23,6,4,0
9.926628119,-84.11359405,110.2488,23,6,4,0
9.926696779,-84.11370849,49.4990,23,6,4,0
9.926761629,-84.11383819,55.6603,23,6,4,0
9.926821709,-84.11396026,52.5816,23,6,4,0
9.926881799,-84.11408233,52.4341,23,6,4,0
9.926938059,-84.11419677,49.5048,23,6,4,0
9.926993379,-84.11431121,49.3592,23,6,4,0
9.927123069,-84.11455535,104.3929,23,6,4,0
9.927197459,-84.11467742,55.1599,23,6,4,0
9.927271849,-84.11480712,57.4029,23,6,4,0
9.927348139,-84.11493682,57.7388,23,6,4,73
9.927428249,-84.11507415,60.8312,23,6,4,1
9.927510269,-84.11519622,56.7767,23,6,4,0
9.927597999,-84.11532592,60.2424,23,6,4,0
9.927802089,-84.11557006,122.9648,23,6,4,0
9.927914619,-84.11567687,60.5106,23,6,4,35
9.928032879,-84.11578369,60.2329,23,6,4,0
9.928156859,-84.11588287,62.0136,23,6,4,0
9.928286559,-84.11595916,58.0042,23,6,4,0
9.928421979,-84.11604309,61.3241,23,6,4,0
9.928709989,-84.11615753,120.2154,23,6,4,2
9.928865439,-84.11621856,64.7503,23,6,4,29
9.929021839,-84.11625671,62.9759,23,6,4,0
9.929183009,-84.11630249,64.2610,23,6,4,0
9.929349899,-84.11632537,65.8071,23,6,4,0
9.929517749,-84.11634063,65.1820,23,6,4,11
9.929690369,-84.11634063,67.2927,23,6,4,0
9.930051809,-84.11633300,140.2451,23,6,4,280
9.930239679,-84.11633300,72.8574,23,6,4,326
9.930435189,-84.11632537,75.8828,23,6,4,0
9.930632599,-84.11632537,76.5003,23,6,4,1
9.930834779,-84.11631774,78.5307,23,6,4,33
9.931039819,-84.11631774,79.4808,23,6,4,0
9.931454659,-84.11630249,161.1390,23,6,4,0
9.931659699,-84.11630249,79.4808,23,6,5,0
9.931864739,-84.11629486,79.5237,23,6,5,511
9.932065019,-84.11629486,77.8250,23,6,5,0
9.932263379,-84.11628723,76.8758,23,6,5,5
9.932457929,-84.11627960,75.5519,23,6,5,296
9.932647709,-84.11627960,73.5198,23,6,5,82
9.933019639,-84.11627960,144.3901,23,6,5,70
9.933199889,-84.11627960,69.8769,23,6,5,145
9.933380129,-84.11628723,69.9256,23,6,5,2
9.933558469,-84.11628723,69.2146,23,6,5,0
9.933736809,-84.11629486,69.2637,23,6,5,22
9.933912279,-84.11630249,68.2709,23,6,5,18
9.934252739,-84.11631011,131.8315,23,6,5,2734
9.934416779,-84.11631774,64.1286,23,6,5,1209
9.934572219,-84.11632537,60.3294,23,6,5,0
9.934724809,-84.11633300,59.0060,23,6,5,0
9.934869769,-84.11634826,56.5403,23,6,5,0
9.935008049,-84.11636352,53.9028,23,6,5,63
9.935136799,-84.11637878,50.2783,23,6,5,0
9.935375219,-84.11640167,92.9842,23,6,5,0
9.935489659,-84.11641693,44.7260,23,6,5,0
9.935600289,-84.11642456,43.1730,23,6,5,0
9.935708049,-84.11642456,41.7679,23,6,5,0
9.935812959,-84.11642456,40.7734,23,6,5,0
9.935921669,-84.11643218,42.1804,23,6,5,0
9.936146739,-84.11643981,87.5527,23,6,5,0
9.936255459,-84.11644744,42.1804,23,6,5,0
9.936358459,-84.11646270,40.8688,23,6,5,0
9.936456689,-84.11647033,38.2109,23,6,5,0
9.936548239,-84.11647033,35.4696,23,6,5,2
9.936628349,-84.11646270,31.2695,23,6,5,0
9.936697959,-84.11643218,29.8588,23,6,5,0
9.936800009,-84.11632537,55.8356,23,6,5,0
9.936818129,-84.11625671,27.0332,23,6,5,0
9.936807639,-84.11618041,31.5972,23,6,5,0
9.936767579,-84.11611938,28.2033,23,6,5,0
9.936699869,-84.11607360,30.5195,23,6,5,0
9.936619759,-84.11605072,32.8653,23,6,5,0
9.936536789,-84.11605834,32.5763,23,6,5,0
9.936408049,-84.11613464,57.7161,23,6,5,0
9.936369899,-84.11621093,32.3750,23,6,5,0
9.936347009,-84.11630249,35.1177,23,6,5,0
9.936326989,-84.11640930,42.4842,23,6,5,532
9.936309819,-84.11653137,47.4839,23,6,5,0
9.936303139,-84.11665344,47.0478,23,6,5,0
9.936267859,-84.11695098,113.1418,23,6,5,0
9.936244969,-84.11711883,65.9143,23,6,5,0
9.936220169,-84.11728668,63.4244,23,6,5,0
9.936187749,-84.11745452,66.5076,23,6,5,0
9.936149599,-84.11762237,66.9859,23,6,5,0
9.936102869,-84.11779022,65.2890,23,6,5,0
9.935997009,-84.11812591,134.4339,23,6,5,0
9.935937889,-84.11830139,71.6642,23,6,6,0
9.935876849,-84.11846923,69.4157,23,6,6,0
9.935812959,-84.11865234,72.3236,23,6,6,0
9.935745239,-84.11883544,75.2332,23,6,6,0
9.935682299,-84.11901855,74.6724,23,6,6,0
9.935622219,-84.11920928,76.8340,23,6,6,0
9.935520179,-84.11959838,154.0299,23,6,6,0
9.935478219,-84.11979675,77.4745,23,6,6,0
9.935441979,-84.12001037,82.2219,23,6,6,0
9.935409549,-84.12021636,79.3707,23,6,6,0
9.935386659,-84.12042236,78.8373,23,6,6,0
9.935372359,-84.12062835,81.1728,23,6,6,0
9.935362819,-84.12084960,83.6686,23,6,6,0
9.935375219,-84.12126159,156.7983,23,6,6,0
9.935390479,-84.12147521,83.8018,23,6,6,0
9.935404779,-84.12168121,78.5671,23,6,6,0
9.935421949,-84.12187194,73.4403,23,6,6,0
9.935437209,-84.12207031,75.9872,23,6,6,0
9.935453419,-84.12225341,70.8090,23,6,6,0
9.935486799,-84.12264251,149.4533,23,6,6,104
9.935503009,-84.12282562,68.2075,23,6,6,0
9.935518269,-84.12300109,68.1777,23,6,6,0
9.935532569,-84.12318420,70.7274,23,6,6,0
9.935547829,-84.12335968,68.1777,23,6,6,0
9.935562139,-84.12353515,65.5466,23,6,6,0
9.935578349,-84.12371826,70.8089,23,6,6,0
9.935609819,-84.12407684,138.9866,23,6,6,0
9.935625079,-84.12425231,65.5760,23,6,6,0
9.935638429,-84.12443542,70.7033,23,6,6,0
9.935652739,-84.12460327,65.5466,23,6,6,0
9.935665139,-84.12477874,65.4930,23,6,6,0
9.935677529,-84.12495422,68.0745,23,6,6,0
9.935689929,-84.12512969,68.0979,23,6,6,0
9.935716629,-84.12548828,136.2203,23,6,6,0
9.935728079,-84.12567138,70.5913,23,6,6,0
9.935740479,-84.12585449,70.6348,23,6,6,0
9.935750009,-84.12603759,70.5540,23,6,6,0
9.935757639,-84.12622070,67.9157,23,6,6,0
9.935765269,-84.12641143,73.1303,23,6,6,0
9.935777669,-84.12674713,127.9681,23,6,6,0
9.935783389,-84.12690734,62.6625,23,6,6,0
9.935788159,-84.12706756,60.0543,23,6,6,0
9.935792929,-84.12721252,57.4356,23,6,6,0
9.935799599,-84.12736511,57.4729,23,6,6,0
9.935808189,-84.12751770,57.5072,23,6,6,0
9.935825349,-84.12779998,109.8042,23,6,6,0
9.935834889,-84.12793731,52.3436,23,6,6,0
9.935845379,-84.12808227,54.9460,23,6,6,0
9.935854919,-84.12822723,54.9231,23,6,6,0
9.935867309,-84.12835693,49.8311,23,6,6,0
9.935876849,-84.12849426,52.3195,23,6,6,0
9.935888299,-84.12863159,52.3697,23,6,6,0
9.935908319,-84.12889862,102.0852,23,6,7,0
9.935916909,-84.12902832,49.6933,23,6,7,0
9.935927399,-84.12915802,49.7419,23,6,7,0
9.935936929,-84.12929534,54.9230,23,6,7,0
9.935950279,-84.12943267,52.4608,23,6,7,0
9.935962679,-84.12956237,49.7991,23,6,7,0
9.935976989,-84.12968444,47.3094,23,6,7,0
9.936010369,-84.12995147,102.5916,23,6,7,0
9.936026579,-84.13008880,52.5704,23,6,7,0
9.936046609,-84.13022613,52.7942,23,6,7,0
9.936066629,-84.13036346,52.7453,23,6,7,0
9.936087609,-84.13049316,50.2693,23,6,7,0
9.936107639,-84.13062286,50.1645,23,6,7,0
9.936127669,-84.13074493,47.5868,23,6,7,0
9.936169629,-84.13098144,90.2590,23,6,7,0
9.936191559,-84.13110351,47.6972,23,6,7,0
9.936212539,-84.13121795,45.1295,23,6,7,1801
9.936237339,-84.13132476,42.8442,23,6,7,0
9.936260229,-84.13144683,47.8166,23,6,7,0
9.936286929,-84.13156890,45.5359,23,6,7,4
9.936360359,-84.13182067,100.6688,23,6,7,0
9.936409959,-84.13194274,50.7486,23,6,7,0
9.936472899,-84.13207244,55.3084,23,6,7,0
9.936547279,-84.13219451,55.1053,23,6,7,0
9.936628349,-84.13230133,52.2799,23,6,7,0
9.936717039,-84.13241577,54.1259,23,6,7,0
9.936900139,-84.13262939,109.5270,23,6,7,0
9.936987879,-84.13274383,53.9158,23,6,7,0
9.937067989,-84.13285827,54.1959,23,6,7,0
9.937142379,-84.13297271,52.8983,23,6,7,0
9.937208179,-84.13310241,55.7557,23,6,7,0
9.937268259,-84.13323211,54.7343,23,6,7,0
9.937322619,-84.13336181,53.9227,23,6,7,0
9.937424659,-84.13362884,109.2585,23,6,7,0
9.937473299,-84.13377380,57.9618,23,6,7,0
9.937517169,-84.13391876,57.3455,23,6,7,0
9.937552459,-84.13406372,58.9952,23,6,7,0
9.937577249,-84.13420867,55.6370,23,6,7,0
9.937589649,-84.13436126,57.6259,23,6,7,0
9.937593469,-84.13450622,54.8178,23,6,7,0
9.937573439,-84.13480377,115.0752,23,6,7,0
9.937553409,-84.13494110,52.7939,23,6,7,503
9.937537199,-84.13508605,55.1619,23,6,7,0
9.937532429,-84.13523101,57.4353,23,6,7,0
9.937541969,-84.13535308,44.5127,23,6,7,0
9.937561989,-84.13546752,45.0125,23,6,7,0
9.937607769,-84.13564300,70.1671,23,6,7,0
9.937627799,-84.13571929,29.7857,23,6,7,0
9.937647819,-84.13579559,29.6991,23,6,7,124
9.937669759,-84.13585662,25.0151,23,6,7,0
9.937692649,-84.13591766,25.0151,23,6,7,0
9.937717439,-84.13597869,25.5014,23,6,7,0
9.937738419,-84.13604736,27.2796,23,6,7,0
9.937794689,-84.13619995,61.4313,23,6,8,0
9.937829979,-84.13630676,43.9060,23,6,8,0
9.937867169,-84.13642120,46.6951,23,6,8,55
9.937907219,-84.13655090,51.9682,23,6,8,0
9.937948229,-84.13668823,54.5592,23,6,8,0
9.937993049,-84.13682556,54.9598,23,6,8,0
9.938084609,-84.13711547,115.2916,23,6,8,0
9.938132289,-84.13725280,57.7494,23,6,8,0
9.938179969,-84.13740539,60.3324,23,6,8,0
9.938227659,-84.13755035,57.8547,23,6,8,0
9.938280109,-84.13770294,60.9725,23,6,8,0
9.938331609,-84.13785552,63.2245,23,6,8,0
9.938382149,-84.13800048,58.1807,23,6,8,0
9.938485149,-84.13829803,121.6140,23,6,8,0
9.938536649,-84.13844299,58.2928,23,6,8,0
9.938587189,-84.13857269,53.2935,23,6,8,0
9.938636779,-84.13871002,55.6143,23,6,8,0
9.938687329,-84.13885498,58.2928,23,6,8,0
9.938736919,-84.13899993,58.0703,23,6,8,0
9.938833239,-84.13928222,115.7092,23,6,8,0
9.938881879,-84.13942718,57.9616,23,6,8,0
9.938932419,-84.13956451,55.8465,23,6,8,0
9.938984879,-84.13970947,58.4064,23,6,8,0
9.939040189,-84.13986206,63.7641,23,6,8,0
9.939097409,-84.14002227,63.9908,23,6,8,0
9.939152719,-84.14017486,61.3140,23,6,8,0
9.939267159,-84.14050292,132.8892,23,6,8,31
9.939325339,-84.14066314,66.5559,23,6,8,0
9.939382559,-84.14083099,66.4446,23,6,8,0
9.939442639,-84.14099121,66.7829,23,6,8,0
9.939504629,-84.14115142,64.7065,23,6,8,8
9.939570429,-84.14131164,67.6225,23,6,8,96
9.939637189,-84.14147949,67.6825,23,6,8,10
9.939777379,-84.14180755,136.5283,23,6,8,0
9.939852719,-84.14196777,69.2862,23,6,8,0
9.939931869,-84.14214324,74.4483,23,6,8,0
9.940011979,-84.14231109,70.0079,23,6,8,0
9.940094949,-84.14247894,72.7902,23,6,8,0
9.940181739,-84.14265441,73.5374,23,6,8,0
9.940355309,-84.14299011,146.9226,23,6,8,0
9.940443039,-84.14315795,71.3858,23,6,8,0
9.940532689,-84.14332580,73.9998,23,6,8,0
9.940623289,-84.14348602,69.5998,23,6,8,0
9.940714839,-84.14364624,72.0294,23,6,8,0
9.940808299,-84.14379882,68.0590,23,6,8,0
9.940899849,-84.14395141,67.5314,23,6,8,0
9.941093449,-84.14425659,139.5679,23,6,8,0
9.941191679,-84.14441680,71.1526,23,6,8,10
9.941292769,-84.14456939,71.6903,23,6,8,0
9.941396719,-84.14472198,70.2705,23,6,8,0
9.941499719,-84.14487457,70.0802,23,6,8,0
9.941608429,-84.14502716,73.3607,23,6,8,0
9.941718109,-84.14517974,71.4337,23,6,9,0
9.941932679,-84.14546966,139.9791,23,6,9,0
9.942040449,-84.14561462,68.9460,23,6,9,0
9.942143449,-84.14576721,70.0802,23,6,9,78
9.942247399,-84.14591217,67.9546,23,6,9,0
9.942350389,-84.14605712,70.0801,23,6,9,84
9.942453389,-84.14619445,65.8641,23,6,9,9
9.942652709,-84.14647674,132.0425,23,6,9,0
9.942751889,-84.14661407,64.8680,23,6,9,0
9.942852979,-84.14675903,67.5653,23,6,9,15
9.942957879,-84.14690399,70.2703,23,6,9,0
9.943064689,-84.14705657,71.0417,23,6,9,7
9.943175319,-84.14720916,71.6309,23,6,9,0
9.943403249,-84.14752197,149.2356,23,6,9,726
9.943519599,-84.14768981,79.2759,23,6,9,0
9.943637849,-84.14785003,75.6399,23,6,9,513
9.943758019,-84.14801788,80.2281,23,6,9,0
9.943878179,-84.14818572,77.9234,23,6,9,0
9.943998339,-84.14834594,78.1209,23,6,9,0
9.944117549,-84.14851379,77.9233,23,6,9,213
9.944361689,-84.14885711,163.3497,23,6,9,0
9.944484719,-84.14902496,78.7187,23,6,9,158
9.944613459,-84.14920043,84.2857,23,6,9,33
9.944740299,-84.14937591,83.7000,23,6,9,244
9.944865229,-84.14955902,83.5065,23,6,9,0
9.944990159,-84.14972686,81.2029,23,6,9,0
9.945115089,-84.14990234,83.3139,23,6,9,0
9.945363049,-84.15024566,162.2086,23,6,9,217
9.945485119,-84.15041351,78.5183,23,6,9,3
9.945608139,-84.15058135,80.8101,23,6,9,140
9.945734979,-84.15074157,77.4896,23,6,9,0
9.945862779,-84.15090942,81.9984,23,6,9,0
9.945993429,-84.15106964,78.5474,23,6,9,0
9.946252829,-84.15142059,168.9647,23,6,9,0
9.946385389,-84.15161132,89.2957,23,6,9,0
9.946512229,-84.15180206,88.1684,23,6,9,0
9.946635249,-84.15200042,89.4491,23,6,9,0
9.946752549,-84.15219879,88.2350,23,6,9,0
9.946866989,-84.15240478,89.9890,23,6,9,0
9.946971899,-84.15262603,92.9105,23,6,9,0
9.947161679,-84.15306091,182.4762,23,6,9,0
9.947253229,-84.15328979,95.6620,23,6,9,0
9.947344779,-84.15351104,90.7124,23,6,9,0
9.947431569,-84.15373229,89.9548,23,6,9,0
9.947517399,-84.15396881,97.2657,23,6,9,0
9.947596549,-84.15419769,91.4564,23,6,9,0
9.947737699,-84.15465545,183.1785,23,6,9,0
9.947799689,-84.15489959,97.0039,23,6,9,1
9.947854999,-84.15512084,88.6844,23,6,9,0
9.947904589,-84.15535736,90.7793,23,6,9,137
9.947950369,-84.15559387,93.0678,23,6,9,0
9.947992329,-84.15582275,87.6300,23,6,9,1
9.948027619,-84.15605926,92.3865,23,6,10,89
9.948084839,-84.15652465,178.8297,23,6,10,0
9.948104859,-84.15676879,94.2513,23,6,10,23
9.948120119,-84.15700531,91.6165,23,6,10,0
9.948131569,-84.15724945,91.5235,23,6,10,0
9.948137289,-84.15748596,91.4515,23,6,10,356
9.948135379,-84.15773010,94.0364,23,6,10,117
9.948131569,-84.15796661,88.8254,23,6,10,170
9.948109629,-84.15844726,185.4613,23,6,10,104
9.948087699,-84.15868377,89.1407,23,6,10,0
9.948061949,-84.15891265,89.2784,23,6,10,0
9.948030479,-84.15914154,86.9818,23,6,10,0
9.947995189,-84.15937042,89.7569,23,6,10,0
9.947957999,-84.15957641,79.6304,23,6,10,0
9.947877889,-84.15998077,157.0777,23,6,10,0
9.947833069,-84.16017913,77.6110,23,6,10,0
9.947785379,-84.16036987,75.3837,23,6,10,0
9.947732929,-84.16056823,78.4123,23,6,10,0
9.947680479,-84.16075897,75.8080,23,6,10,0
9.947625169,-84.16094207,73.6723,23,6,10,0
9.947567939,-84.16111755,71.3838,23,6,10,0
9.947449689,-84.16146087,138.2489,23,6,10,0
9.947386749,-84.16162109,64.8296,23,6,10,0
9.947322849,-84.16178131,67.3742,23,6,10,0
9.947257999,-84.16193389,62.6845,23,6,10,0
9.947193149,-84.16208648,62.6846,23,6,10,0
9.947128299,-84.16223144,62.6846,23,6,10,0
9.946987159,-84.16252136,122.5856,23,6,10,0
9.946911819,-84.16266632,62.1277,23,6,10,0
9.946834569,-84.16281127,64.9019,23,6,10,0
9.946758279,-84.16294860,59.9964,23,6,10,0
9.946678169,-84.16310119,65.3700,23,6,10,0
9.946599969,-84.16324615,62.7613,23,6,10,0
9.946441659,-84.16353607,127.9704,23,6,10,0
9.946359639,-84.16368865,65.6887,23,6,10,0
9.946279529,-84.16384124,65.3068,23,6,10,0
9.946200379,-84.16399383,67.4604,23,6,10,0
9.946118359,-84.16414642,65.6251,23,6,10,0
9.946037299,-84.16429901,65.4653,23,6,10,0
9.945953369,-84.16445922,70.4704,23,6,10,0
9.945784569,-84.16476440,134.4966,23,6,10,0
9.945699699,-84.16491699,66.1122,23,6,10,0
9.945614819,-84.16507720,68.5499,23,6,10,0
9.945529939,-84.16523742,70.6917,23,6,10,0
9.945445069,-84.16539764,68.3905,23,6,10,0
9.945362099,-84.16555023,68.2324,23,6,10,0
9.945193299,-84.16587066,136.6226,23,6,10,0
9.945107469,-84.16603088,71.0014,23,6,10,0
9.945017819,-84.16619110,69.3651,23,6,10,0
9.944928169,-84.16635894,73.9273,23,6,10,0
9.944837579,-84.16651916,69.5317,23,6,10,0
9.944749839,-84.16668701,73.6182,23,6,10,0
9.944657329,-84.16685485,74.3999,23,6,11,0
9.944470409,-84.16719818,149.2799,23,6,11,0
9.944377899,-84.16737365,76.6984,23,6,11,0
9.944287309,-84.16754150,71.7964,23,6,11,0
9.944194799,-84.16771697,76.8534,23,6,11,0
9.944105149,-84.16789245,76.2402,23,6,11,0
9.944017419,-84.16807556,76.0141,23,6,11,0
9.943931579,-84.16825866,77.9285,23,6,11,0
9.943782809,-84.16861724,149.9760,23,6,11,0
9.943724639,-84.16880035,71.5575,23,6,11,0
9.943676949,-84.16899108,75.4577,23,6,11,0
9.943637849,-84.16918182,74.7113,23,6,11,0
9.943608289,-84.16937255,74.0531,23,6,11,0
9.943585399,-84.16958618,81.4681,23,6,11,0
9.943565369,-84.16998291,154.3020,23,6,11,0
9.943570139,-84.17018127,75.7034,23,6,11,0
9.943581589,-84.17038726,78.4052,23,6,11,0
9.943605429,-84.17058563,76.2433,23,6,11,0
9.943636899,-84.17078399,76.6629,23,6,11,0
9.943677909,-84.17098999,79.8844,23,6,11,0
9.943730359,-84.17118072,75.7355,23,6,11,0
9.943866729,-84.17158508,162.8269,23,6,11,0
9.943952569,-84.17177581,80.3596,23,6,11,0
9.944051749,-84.17195892,80.2503,23,6,11,0
9.944160469,-84.17214202,82.0565,23,6,11,0
9.944281579,-84.17231750,80.4213,23,6,11,0
9.944415099,-84.17248535,83.2174,23,6,11,0
9.944558149,-84.17263031,78.0932,23,6,11,0
9.944862369,-84.17290496,157.4650,23,6,11,0
9.945019729,-84.17301940,75.3733,23,6,11,0
9.945181849,-84.17312622,75.5150,23,6,11,0
9.945351609,-84.17322540,75.3518,23,6,11,0
9.945525169,-84.17330932,75.3020,23,6,11,0
9.945705419,-84.17339324,76.8006,23,6,11,0
9.946064949,-84.17353057,148.8709,23,6,11,0
9.946240429,-84.17359161,71.8375,23,6,11,0
9.946412089,-84.17365264,70.5869,23,6,11,0
9.946578029,-84.17372131,69.6513,23,6,11,0
9.946733479,-84.17377471,63.7860,23,6,11,0
9.946880349,-84.17384338,62.7150,23,6,11,0
9.947162629,-84.17397308,120.1237,23,6,11,0
9.947304729,-84.17406463,64.9438,23,6,11,0
9.947444919,-84.17414855,62.7535,23,6,11,0
9.947578439,-84.17425537,66.4895,23,6,11,0
9.947708129,-84.17437744,68.9161,23,6,11,0
9.947832109,-84.17449951,67.4755,23,6,11,0
9.947948459,-84.17462921,67.0486,23,6,11,0
9.948164939,-84.17493438,144.2553,23,6,11,0
9.948260309,-84.17509460,70.5552,23,6,11,0
9.948345189,-84.17526245,73.0132,23,6,11,0
9.948412899,-84.17544555,72.8369,23,6,11,0
9.948468209,-84.17562866,73.6721,23,6,11,0
9.948512079,-84.17582702,77.5380,23,6,12,0
9.948559769,-84.17620086,144.7170,23,6,12,0
9.948564529,-84.17639160,73.0854,23,6,12,0
9.948557859,-84.17658233,73.1034,23,6,12,0
9.948539739,-84.17677307,73.4290,23,6,12,0
9.948508269,-84.17697143,76.6618,23,6,12,0
9.948467259,-84.17716217,74.7758,23,6,12,0
9.948410039,-84.17734527,71.3836,23,6,12,0
9.948260309,-84.17769622,147.5533,23,6,12,0
9.948169709,-84.17785644,69.5312,23,6,12,303
9.948072439,-84.17801666,73.1277,23,6,12,0
9.947967529,-84.17817687,72.5365,23,6,12,0
9.947862629,-84.17832946,72.5365,23,6,12,518
9.947756769,-84.17848968,72.7231,23,6,12,160
9.947543149,-84.17881011,148.1203,23,6,12,0
9.947437289,-84.17897033,72.7936,23,6,12,0
9.947330479,-84.17913818,77.3387,23,6,12,0
9.947221759,-84.17929840,73.3598,23,6,12,0
9.947113039,-84.17945861,75.6992,23,6,12,2
9.947005279,-84.17962646,75.3296,23,6,12,0
9.946902279,-84.17979431,76.6365,23,6,12,0
9.946724899,-84.18014526,149.8495,23,6,12,0
9.946655279,-84.18033599,77.9503,23,6,12,0
9.946597099,-84.18051910,73.9689,23,6,12,0
9.946548469,-84.18071746,77.9954,23,6,12,0
9.946507459,-84.18090820,74.7763,23,6,12,0
9.946476939,-84.18111419,79.1888,23,6,12,0
9.946457869,-84.18150329,148.9221,23,6,12,0
9.946467399,-84.18168640,70.5517,23,6,12,0
9.946481709,-84.18186950,70.6821,23,6,12,0
9.946501739,-84.18204498,68.2742,23,6,12,0
9.946530349,-84.18222045,66.2030,23,6,12,0
9.946561819,-84.18240356,71.5151,23,6,12,0
9.946597099,-84.18257141,66.6365,23,6,12,0
9.946660049,-84.18288421,119.9592,23,6,12,0
9.946692469,-84.18304443,63.8807,23,6,12,0
9.946722989,-84.18321228,63.6925,23,6,12,0
9.946758279,-84.18339538,71.8173,23,6,12,0
9.946792609,-84.18357086,69.1290,23,6,12,0
9.946826939,-84.18374633,69.1290,23,6,12,0
9.946854599,-84.18392181,66.1474,23,6,12,0
9.946887019,-84.18428802,141.4758,23,6,12,0
9.946887969,-84.18447113,70.4583,23,6,12,0
9.946885109,-84.18464660,65.2519,23,6,12,0
9.946874619,-84.18482971,70.5695,23,6,12,0
9.946857459,-84.18500518,68.2366,23,6,12,0
9.946831709,-84.18518066,68.6380,23,6,12,0
9.946763039,-84.18554687,141.0195,23,6,12,0
9.946720129,-84.18571472,67.3723,23,6,12,0
9.946669579,-84.18588256,65.6697,23,6,12,0
9.946615219,-84.18604278,66.1822,23,6,12,0
9.946555139,-84.18620300,64.4031,23,6,12,0
9.946493149,-84.18635559,64.7681,23,6,13,0
9.946432119,-84.18651580,64.5233,23,6,13,0
9.946311959,-84.18681335,124.0719,23,6,13,777
9.946252829,-84.18695068,56.9740,23,6,13,0
9.946196559,-84.18709564,58.9985,23,6,13,0
9.946142199,-84.18723297,56.3303,23,6,13,0
9.946084979,-84.18737030,56.7116,23,6,13,0
9.946027759,-84.18750762,56.7117,23,6,13,0
9.945932389,-84.18773651,96.1654,23,6,13,0
9.945892339,-84.18784332,42.0031,23,6,13,0
9.945852279,-84.18793487,39.7111,23,6,13,0
9.945813179,-84.18802642,37.1875,23,6,13,0
9.945773129,-84.18812561,42.1243,23,6,13,1390
9.945730209,-84.18822479,40.1110,23,6,13,0
9.945687299,-84.18833923,47.4686,23,6,13,0
9.945590019,-84.18857574,98.8294,23,6,13,130
9.945537569,-84.18870544,53.5389,23,6,13,0
9.945487979,-84.18883514,53.1720,23,6,13,0
9.945434579,-84.18894958,46.6753,23,6,13,0
9.945380219,-84.18908691,58.6378,23,6,13,614
9.945322039,-84.18922424,56.8973,23,6,13,0
9.945201879,-84.18952178,121.6566,23,6,13,1975
9.945139889,-84.18967437,64.7683,23,6,13,2225
9.945076949,-84.18982696,62.4219,23,6,13,268
9.945013049,-84.18998718,64.8300,23,6,13,0
9.944948199,-84.19013977,65.0833,23,6,13,0
9.944883349,-84.19029235,62.6849,23,6,13,0
9.944754609,-84.19061279,132.4517,23,6,13,0
9.944691659,-84.19076538,62.4220,23,6,13,108
9.944627769,-84.19092559,67.3747,23,6,13,0
9.944562919,-84.19108581,65.0834,23,6,13,0
9.944498069,-84.19124603,67.4975,23,6,13,409
9.944435119,-84.19140625,64.7057,23,6,13,0
9.944373139,-84.19155883,62.2927,23,6,13,0
9.944252969,-84.19185638,123.9523,23,6,13,0
9.944192889,-84.19200897,61.9140,23,6,13,695
9.944131859,-84.19216156,64.4612,23,6,13,0
9.944067959,-84.19231414,62.5528,23,6,13,1
9.944003109,-84.19247436,67.4975,23,6,13,0
9.943937309,-84.19263458,65.2755,23,6,13,0
9.943873409,-84.19279479,65.0192,23,6,13,0
9.943757059,-84.19306945,116.1980,23,6,13,138
9.943710329,-84.19318389,45.5972,23,6,13,0
9.943662649,-84.19329833,48.1296,23,6,13,1
9.943614959,-84.19340515,45.7307,23,6,13,0
9.943565369,-84.19352722,50.7969,23,6,13,0
9.943510059,-84.19366455,56.4562,23,6,13,0
9.943392759,-84.19394683,116.2144,23,6,13,0
9.943329819,-84.19409942,62.4222,23,6,13,0
9.943263059,-84.19425964,67.7475,23,6,13,0
9.943191529,-84.19442749,68.5297,23,6,13,0
9.943117149,-84.19460296,73.7127,23,6,13,0
9.943039899,-84.19477844,74.1067,23,6,14,0
9.942961699,-84.19496154,76.7636,23,6,14,0
9.942802429,-84.19534301,158.7163,23,6,14,0
9.942717559,-84.19554138,82.4742,23,6,14,0
9.942634589,-84.19574737,84.6215,23,6,14,0
9.942549709,-84.19595336,85.0036,23,6,14,0
9.942461969,-84.19615936,85.2638,23,6,14,0
9.942373279,-84.19637298,87.9233,23,6,14,0
9.942199709,-84.19680023,177.7430,23,6,14,0
9.942114839,-84.19702911,92.1459,23,6,14,0
9.942027099,-84.19725799,95.0566,23,6,14,0
9.941932679,-84.19748687,93.5041,23,6,14,0
9.941837319,-84.19773101,101.0018,23,6,14,0
9.941738129,-84.19795989,96.6851,23,6,14,0
9.941536909,-84.19844055,198.6879,23,6,14,0
9.941431999,-84.19868469,102.3958,23,6,14,0
9.941323289,-84.19892883,100.6513,23,6,14,0
9.941212659,-84.19917297,103.4401,23,6,14,0
9.941104889,-84.19941711,102.8948,23,6,14,0
9.940998079,-84.19966125,102.7607,23,6,14,0
9.940892219,-84.19990539,100.2396,23,6,14,0
9.940683369,-84.20040130,207.0587,23,6,14,0
9.940578469,-84.20063781,99.8727,23,6,14,0
9.940477379,-84.20088958,104.2876,23,6,14,0
9.940373429,-84.20112609,97.4920,23,6,14,0
9.940272339,-84.20137786,104.1630,23,6,14,0
9.940172199,-84.20161437,99.2145,23,6,14,0
9.940074929,-84.20185852,98.8308,23,6,14,0
9.939888009,-84.20234680,201.4024,23,6,14,0
9.939797409,-84.20259094,100.2897,23,6,14,0
9.939706809,-84.20283508,97.8495,23,6,14,0
9.939617159,-84.20307159,97.7311,23,6,14,0
9.939528469,-84.20332336,102.5139,23,6,14,0
9.939441689,-84.20355987,97.3821,23,6,14,0
9.939277649,-84.20403289,190.9591,23,6,14,0
9.939202309,-84.20426177,90.9142,23,6,14,0
9.939125069,-84.20449829,96.1793,23,6,14,0
9.939047819,-84.20473480,96.0761,23,6,14,0
9.938973429,-84.20497131,93.2871,23,6,14,0
9.938901909,-84.20520019,93.0753,23,6,14,0
9.938768389,-84.20566558,185.0924,23,6,14,0
9.938702589,-84.20588684,87.3986,23,6,14,0
9.938639649,-84.20613098,97.1005,23,6,14,0
9.938577659,-84.20635986,89.5327,23,6,14,0
9.938516619,-84.20659637,94.4056,23,6,14,0
9.938456539,-84.20684051,96.9374,23,6,14,0
9.938394549,-84.20707702,91.9637,23,6,14,0
9.938273429,-84.20755004,188.6283,23,6,14,0
9.938215259,-84.20778656,91.5398,23,6,14,0
9.938158039,-84.20801544,91.4589,23,6,14,0
9.938102729,-84.20824432,88.7666,23,6,14,0
9.938048369,-84.20847320,91.2230,23,6,14,0
9.937996869,-84.20869445,85.8389,23,6,15,0
9.937947279,-84.20892333,90.7819,23,6,15,0
9.937852859,-84.20935058,165.9191,23,6,15,0
9.937808039,-84.20955657,80.1599,23,6,15,0
9.937765129,-84.20977783,87.7577,23,6,15,0
9.937725069,-84.20998382,79.8206,23,6,15,0
9.937686929,-84.21018981,79.6328,23,6,15,0
9.937647819,-84.21039581,79.7567,23,6,15,0
9.937569619,-84.21080017,159.5134,23,6,15,0
9.937533379,-84.21099853,76.9463,23,6,15,0
9.937498099,-84.21119689,76.8871,23,6,15,2
9.937464719,-84.21140289,79.3466,23,6,15,0
9.937435159,-84.21159362,73.9828,23,6,15,0
9.937406539,-84.21177673,71.3535,23,6,15,0
9.937352189,-84.21213531,137.2944,23,6,15,0
9.937324529,-84.21231079,68.7244,23,6,15,0
9.937299729,-84.21249389,71.1111,23,6,15,0
9.937274939,-84.21267700,68.5927,23,6,15,0
9.937250139,-84.21285247,68.5927,23,6,15,0
9.937228209,-84.21302032,65.8699,23,6,15,0
9.937208179,-84.21319580,65.7472,23,6,15,0
9.937176709,-84.21350097,118.1847,23,6,15,0
9.937162399,-84.21364593,55.1437,23,6,15,0
9.937147149,-84.21378326,52.5460,23,6,15,0
9.937132839,-84.21392059,52.5460,23,6,15,0
9.937120439,-84.21404266,47.2808,23,6,15,0
9.937109949,-84.21415710,44.5843,23,6,15,0
9.937097549,-84.21427917,47.2350,23,6,15,0
9.937078479,-84.21448516,78.6267,23,6,15,0
9.937069899,-84.21458435,39.2841,23,6,15,0
9.937063219,-84.21468353,36.6305,23,6,15,0
9.937058449,-84.21477508,36.5721,23,6,15,0
9.937054639,-84.21487426,36.5721,23,6,15,0
9.937051779,-84.21497344,39.1568,23,6,15,0
9.937042239,-84.21518707,80.9800,23,6,15,0
9.937034609,-84.21528625,36.6560,23,6,15,0
9.937026979,-84.21539306,41.8601,23,6,15,0
9.937018399,-84.21550750,44.4869,23,6,15,0
9.937009819,-84.21561431,39.2841,23,6,15,0
9.937000279,-84.21573638,47.1141,23,6,15,0
9.936991699,-84.21585845,47.1141,23,6,15,0
9.936972619,-84.21609497,91.6267,23,6,15,0
9.936966899,-84.21620941,44.4240,23,6,15,0
9.936962129,-84.21630859,36.5721,23,6,15,0
9.936960229,-84.21642303,44.3684,23,6,15,0
9.936963089,-84.21652984,39.1568,23,6,15,0
9.936969759,-84.21663665,41.8378,23,6,15,0
9.937006959,-84.21685791,84.7132,23,6,15,0
9.937034609,-84.21695709,40.6412,23,6,15,0
9.937069899,-84.21706390,43.9061,23,6,15,0
9.937108039,-84.21717071,41.8851,23,6,15,0
9.937148099,-84.21726226,39.7120,23,6,15,503
9.937191969,-84.21736145,40.2887,23,6,16,13
9.937236789,-84.21743774,33.6792,23,6,16,2665
9.937332159,-84.21759033,70.4517,23,6,16,1223
9.937384609,-84.21766662,35.2931,23,6,16,769
9.937441829,-84.21774291,36.2815,23,6,16,1132
9.937500009,-84.21782684,38.5718,23,6,16,13
9.937555319,-84.21789550,33.8287,23,6,16,310
9.937609679,-84.21797180,37.6290,23,6,16,0
9.937712669,-84.21810913,65.8009,23,6,16,0
9.937762269,-84.21817779,32.4029,23,6,16,7
9.937805179,-84.21824645,30.9061,23,6,16,0
9.937837609,-84.21831512,28.9720,23,6,16,0
9.937865259,-84.21836090,21.2868,23,6,16,0
9.937879569,-84.21839904,14.0829,23,6,16,0
9.937887199,-84.21842956,13.3841,23,6,16,0
9.937892919,-84.21847534,15.8283,23,6,16,0
9.937892919,-84.21849060,7.8288,23,6,16,0
9.937892919,-84.21850585,5.2192,23,6,16,0
9.937892919,-84.21852111,5.2192,23,6,16,17
9.937891969,-84.21853637,5.2297,23,6,16,14
9.937888149,-84.21856689,13.1527,23,6,16,0
9.937874799,-84.21864318,29.1606,23,6,16,0
9.937862399,-84.21868133,13.9752,23,6,16,0
9.937847139,-84.21871948,16.7702,23,6,16,4
9.937827119,-84.21876525,19.8109,23,6,16,0
9.937803269,-84.21881103,18.2151,23,6,16,6
9.937774659,-84.21884918,19.1129,23,6,16,0
9.937742239,-84.21888732,20.1076,23,6,16,0
9.937662129,-84.21894836,39.0339,23,6,16,0
9.937615399,-84.21898651,22.4274,23,6,16,0
9.937562949,-84.21901702,24.0722,23,6,16,0
9.937507629,-84.21904754,23.9235,23,6,16,0
9.937453269,-84.21907806,24.8893,23,6,16,295
9.937399869,-84.21911621,24.3277,23,6,16,0
9.937299729,-84.21917724,45.5929,23,6,16,0
9.937257769,-84.21920776,20.8225,23,6,16,0
9.937216759,-84.21923065,17.7194,23,6,16,0
9.937172889,-84.21925354,18.6159,23,6,16,0
9.937128069,-84.21929168,23.5210,23,6,16,0
9.937078479,-84.21932220,21.8610,23,6,16,0
9.937026979,-84.21935272,23.7714,23,6,16,0
9.936924939,-84.21942138,47.5427,23,6,16,0
9.936875349,-84.21946716,24.7812,23,6,16,0
9.936824799,-84.21950531,25.0387,23,6,16,0
9.936775209,-84.21954345,24.7812,23,6,16,0
9.936719899,-84.21958160,25.1719,23,6,16,19
9.936659819,-84.21964263,33.0003,23,6,16,0
9.936596879,-84.21969604,32.1935,23,6,16,0
9.936470039,-84.21981811,68.1274,23,6,16,0
9.936407089,-84.21987915,33.7056,23,6,16,0
9.936343199,-84.21995544,37.9597,23,6,16,0
9.936280259,-84.22002410,35.7992,23,6,16,0
9.936218269,-84.22009277,35.3491,23,6,17,0
9.936158189,-84.22017669,39.1602,23,6,17,0
9.936050419,-84.22031402,66.8872,23,6,17,0
9.936004639,-84.22038269,33.8534,23,6,17,0
9.935964589,-84.22044372,26.0659,23,6,17,0
9.935930259,-84.22051239,31.6456,23,6,17,0
9.935894969,-84.22057342,24.9282,23,6,17,0
9.935862549,-84.22063446,26.6715,23,6,17,2
9.935803419,-84.22075653,52.2871,23,6,17,0
9.935774809,-84.22081756,26.0715,23,6,17,0
9.935747149,-84.22087860,25.7918,23,6,17,0
9.935720449,-84.22094726,28.1933,23,6,17,0
9.935692789,-84.22100830,25.7668,23,6,17,5
9.935667039,-84.22106933,25.5015,23,6,17,0
9.935637479,-84.22113800,28.5546,23,6,17,0
9.935566909,-84.22128295,61.1614,23,6,17,0
9.935524949,-84.22135925,35.2702,23,6,17,3325
9.935482029,-84.22144317,35.5798,23,6,17,0
9.935438159,-84.22152709,35.5798,23,6,17,0
9.935397149,-84.22161865,37.4647,23,6,17,0
9.935353279,-84.22171020,40.3900,23,6,17,5
9.935310369,-84.22180938,40.1120,23,6,17,0
9.935227399,-84.22198486,75.0706,23,6,17,24
9.935187339,-84.22206878,34.9705,23,6,17,0
9.935148239,-84.22216033,39.5836,23,6,17,0
9.935111999,-84.22223663,31.8982,23,6,17,0
9.935079579,-84.22231292,31.3433,23,6,17,19
9.935047149,-84.22238159,28.9722,23,6,17,0
9.934985169,-84.22252655,59.8977,23,6,17,0
9.934954649,-84.22260284,33.3918,23,6,17,0
9.934926989,-84.22267150,28.2923,23,6,17,0
9.934900289,-84.22274780,30.4865,23,6,17,0
9.934872629,-84.22281646,28.2923,23,6,17,0
9.934847839,-84.22288513,27.8074,23,6,17,0
9.934827809,-84.22295379,27.2116,23,6,17,0
9.934797289,-84.22308349,51.0457,23,6,17,0
9.934784889,-84.22314453,23.9632,23,6,17,0
9.934771539,-84.22319793,21.5599,23,6,17,0
9.934757239,-84.22325897,24.1755,23,6,17,0
9.934744839,-84.22332000,23.9632,23,6,17,0
9.934735299,-84.22338867,26.3749,23,6,17,0
9.934721949,-84.22351074,47.3172,23,6,17,0
9.934712409,-84.22357177,21.2131,23,6,17,0
9.934701919,-84.22360992,16.1699,23,6,17,0
9.934695249,-84.22364044,10.7695,23,6,17,0
9.934692389,-84.22366333,10.5223,23,6,17,0
9.934687619,-84.22368621,8.0021,23,6,17,0
9.934686669,-84.22371673,13.0524,23,6,17,0
9.934678079,-84.22379302,28.8964,23,6,17,0
9.934673309,-84.22383880,18.3752,23,6,17,5
9.934667589,-84.22388458,15.8285,23,6,17,0
9.934662819,-84.22394561,23.5450,23,6,17,0
9.934657099,-84.22399902,21.0054,23,6,18,0
9.934652329,-84.22406768,26.1719,23,6,18,0
9.934641839,-84.22418975,47.1412,23,6,18,0
9.934637069,-84.22425842,26.1488,23,6,18,0
9.934632309,-84.22431945,23.5706,23,6,18,0
9.934627539,-84.22438049,23.5706,23,6,18,0
9.934622769,-84.22443389,20.9426,23,6,18,0
9.934619909,-84.22447967,15.7137,23,6,18,0
9.934615139,-84.22452545,18.3423,23,6,18,0
9.934602739,-84.22464752,47.2354,23,6,18,0
9.934597969,-84.22470092,20.9426,23,6,18,0
9.934595109,-84.22477722,28.7365,23,6,18,0
9.934590339,-84.22484588,26.1488,23,6,18,0
9.934584619,-84.22491455,26.1991,23,6,18,0
9.934579849,-84.22498321,26.1488,23,6,18,0
9.934570319,-84.22511291,49.7421,23,6,18,0
9.934567459,-84.22518157,26.1152,23,6,18,0
9.934562689,-84.22525024,26.1719,23,6,18,18
9.934557919,-84.22531127,23.5679,23,6,18,0
9.934552199,-84.22537231,23.6237,23,6,18,0
9.934547429,-84.22544860,28.7816,23,6,18,2
9.934539799,-84.22552490,28.8883,23,6,18,0
9.934527399,-84.22569274,65.4932,23,6,18,0
9.934519769,-84.22579193,36.6918,23,6,18,9
9.934512139,-84.22589874,41.9010,23,6,18,0
9.934502609,-84.22599029,36.7517,23,6,18,0
9.934494979,-84.22609710,39.2959,23,6,18,0
9.934488299,-84.22618103,31.4275,23,6,18,0
9.934473039,-84.22637176,73.3125,23,6,18,0
9.934467319,-84.22645568,33.9834,23,6,18,0
9.934457779,-84.22655487,36.7161,23,6,18,64
9.934450149,-84.22664642,36.6563,23,6,18,0
9.934443479,-84.22675323,39.2341,23,6,18,0
9.934434899,-84.22685241,39.2844,23,6,18,0
9.934427269,-84.22695922,39.2578,23,6,18,0
9.934412009,-84.22716522,81.1180,23,6,18,0
9.934403419,-84.22727966,41.8853,23,6,18,1
9.934396749,-84.22738647,41.8381,23,6,18,0
9.934390069,-84.22749328,41.8381,23,6,18,0
9.934383399,-84.22760772,41.8381,23,6,18,0
9.934374809,-84.22772216,44.4873,23,6,18,0
9.934357649,-84.22795867,91.5771,23,6,18,0
9.934350019,-84.22808074,47.0679,23,6,18,0
9.934339529,-84.22820281,44.5415,23,6,18,0
9.934331899,-84.22832489,47.0679,23,6,18,0
9.934320449,-84.22845458,49.7697,23,6,18,0
9.934308059,-84.22858428,49.8313,23,6,18,0
9.934297569,-84.22870635,47.1413,23,6,18,0
9.934277539,-84.22895812,96.8831,23,6,18,0
9.934267999,-84.22908020,47.1145,23,6,18,0
9.934258469,-84.22920227,47.1145,23,6,18,0
9.934247979,-84.22931671,44.5415,23,6,18,0
9.934238439,-84.22943115,41.9535,23,6,19,0
9.934229859,-84.22955322,47.1357,23,6,19,0
9.934220319,-84.22967529,47.1870,23,6,19,0
9.934197429,-84.22991180,91.8313,23,6,19,0
9.934186939,-84.23003387,47.2161,23,6,19,0
9.934177399,-84.23014831,41.9535,23,6,19,0
9.934167869,-84.23027801,49.7650,23,6,19,1266
9.934158329,-84.23041534,52.3197,23,6,19,0
9.934144979,-84.23054504,49.8654,23,6,19,0
9.934122089,-84.23081970,107.3681,23,6,19,0
9.934111599,-84.23094940,49.7421,23,6,19,543
9.934103019,-84.23108673,52.2977,23,6,19,0
9.934093479,-84.23121643,49.7168,23,6,19,0
9.934082989,-84.23133850,47.1413,23,6,19,747
9.934075359,-84.23145294,41.8605,23,6,19,326
9.934058189,-84.23168182,88.9746,23,6,19,0
9.934052469,-84.23177337,34.0044,23,6,19,0
9.934044839,-84.23185729,34.0560,23,6,19,0
9.934040069,-84.23192596,26.1719,23,6,19,0
9.934037209,-84.23197937,18.2945,23,6,19,0
9.934032449,-84.23201751,15.7834,23,6,19,0
9.934027679,-84.23204803,10.5691,23,6,19,0
9.934026719,-84.23209381,18.2705,23,6,19,0
9.934024819,-84.23210906,5.3130,23,6,19,0
9.934022909,-84.23212432,7.8569,23,6,19,0
9.934020049,-84.23216247,13.0860,23,6,19,0
9.934017189,-84.23220062,15.6893,23,6,19,0
9.934013369,-84.23223876,13.1656,23,6,19,0
9.934012419,-84.23228454,18.2882,23,6,19,0
9.934002879,-84.23239898,44.5564,23,6,19,0
9.933997159,-84.23246765,26.2246,23,6,19,0
9.933989529,-84.23252868,23.6981,23,6,19,0
9.933981899,-84.23260498,28.8883,23,6,19,0
9.933975219,-84.23268890,31.4580,23,6,19,0
9.933970459,-84.23276519,28.7816,23,6,19,0
9.933957099,-84.23294067,68.1232,23,6,19,0
9.933950429,-84.23303222,36.6664,23,6,19,448
9.933939939,-84.23313140,36.7504,23,6,19,2369
9.933930399,-84.23323059,39.3137,23,6,19,1620
9.933921819,-84.23334503,41.8854,23,6,19,2
9.933912279,-84.23346710,47.1146,23,6,19,5365
9.933893209,-84.23370361,91.6545,23,6,19,1441
9.933882719,-84.23383331,49.7422,23,6,19,0
9.933872229,-84.23396301,49.7422,23,6,19,4048
9.933859829,-84.23408508,47.2355,23,6,19,2122
9.933850289,-84.23422241,52.3198,23,6,19,3771
9.933839799,-84.23435211,49.7904,23,6,19,451
9.933832169,-84.23447418,47.1136,23,6,19,0
9.933815009,-84.23471069,89.0610,23,6,19,207
9.933805469,-84.23482513,44.5132,23,6,19,2
9.933796889,-84.23494720,47.1146,23,6,19,726
9.933785439,-84.23506164,44.5723,23,6,19,0
9.933774949,-84.23518371,47.1413,23,6,20,330
9.933768279,-84.23531341,49.6539,23,6,20,0
9.933761599,-84.23544311,49.6539,23,6,20,0
9.933736809,-84.23570251,97.0332,23,6,20,157
9.933725359,-84.23583221,49.7697,23,6,20,10
9.933712959,-84.23596954,55.0272,23,6,20,4
9.933703429,-84.23609924,49.7168,23,6,20,13
9.933692939,-84.23622131,44.5415,23,6,20,3
9.933682449,-84.23635101,49.7698,23,6,20,0
9.933663369,-84.23661804,104.6396,23,6,20,0
9.933652879,-84.23674774,49.7422,23,6,20,0
9.933645249,-84.23686981,44.4639,23,6,20,58
9.933634759,-84.23700714,54.9464,23,6,20,0
9.933625229,-84.23714447,52.3439,23,6,20,182
9.933611869,-84.23728179,52.4796,23,6,20,0
9.933600429,-84.23741912,52.4492,23,6,20,29
9.933576589,-84.23770141,107.5006,23,6,20,0
9.933563239,-84.23784637,55.0805,23,6,20,0
9.933547979,-84.23799133,57.7768,23,6,20,20
9.933529859,-84.23814392,57.8879,23,6,20,1879
9.933506969,-84.23829650,58.1043,23,6,20,2904
9.933472639,-84.23844909,61.4662,23,6,20,2764
9.933384899,-84.23875427,119.7838,23,6,20,182
9.933327679,-84.23889923,61.5507,23,6,20,18
9.933262829,-84.23902893,55.6055,23,6,20,1613
9.933190349,-84.23916625,59.3000,23,6,20,833
9.933110239,-84.23928833,54.1963,23,6,20,0
9.933023459,-84.23941040,57.6654,23,6,20,0
9.932843209,-84.23960876,103.2308,23,6,20,0
9.932752609,-84.23969268,48.8657,23,6,20,0
9.932667739,-84.23978424,47.2246,23,6,20,0
9.932584769,-84.23985290,41.4279,23,6,20,0
9.932502749,-84.23992156,41.1711,23,6,20,0
9.932430269,-84.23997497,35.0804,23,6,20,0
9.932362559,-84.24001312,30.8045,23,6,20,0
9.932250029,-84.24008178,50.6765,23,6,20,0
9.932202339,-84.24010467,20.1498,23,6,20,0
9.932163239,-84.24011993,16.1187,23,6,20,0
9.932132729,-84.24013519,13.0145,23,6,20,0
9.932111749,-84.24014282,9.5086,23,6,20,0
9.932094579,-84.24015045,7.1190,23,6,20,0
9.932082179,-84.24015808,5.6113,23,6,20,0
9.932083129,-84.24015045,2.6306,23,6,20,0
9.932085039,-84.24015045,0.6623,23,6,20,0
9.932087899,-84.24015045,1.3247,23,6,20,0
9.932089809,-84.24015045,0.6623,23,6,20,0
9.932089809,-84.24014282,2.6097,23,6,20,0
9.932085039,-84.24015045,3.2800,23,6,20,0
9.932060249,-84.24015808,9.9522,23,6,20,0
9.932055479,-84.24016571,3.0907,23,6,20,0
9.932052619,-84.24016571,1.3247,23,6,20,0
9.932052619,-84.24016571,0.0000,23,6,20,0
9.932052619,-84.24016571,0.0000,23,6,21,0
9.932052619,-84.24016571,0.0000,23,6,21,0
9.932055479,-84.24016571,1.3247,23,6,21,0
9.932044989,-84.24016571,3.9740,23,6,21,0
9.932031639,-84.24017333,5.9065,23,6,21,0
9.932023049,-84.24018096,4.2164,23,6,21,0
9.932022099,-84.24018096,0.3312,23,6,21,0
9.932022099,-84.24018096,0.0000,23,6,21,0
9.932022099,-84.24018096,0.0000,23,6,21,0
9.932022099,-84.24018096,0.0000,23,6,21,0
9.932022099,-84.24018096,0.0000,23,6,21,0
9.932022099,-84.24018096,0.0000,23,6,21,0
9.932022099,-84.24018096,0.0000,23,6,21,0
9.932022099,-84.24018096,0.0000,23,6,21,0
9.932003029,-84.24018859,8.0516,23,6,21,16
9.931964879,-84.24021148,17.9073,23,6,21,0
9.931889539,-84.24023437,30.4962,23,6,21,0
9.931852349,-84.24024963,15.1667,23,6,21,0
9.931808479,-84.24025726,17.0901,23,6,21,0
9.931759839,-84.24027252,20.4358,23,6,21,0
9.931708339,-84.24028778,20.8647,23,6,21,0
9.931654939,-84.24031066,21.9745,23,6,21,0
9.931534769,-84.24034881,49.2503,23,6,21,0
9.931465149,-84.24037933,29.0931,23,6,21,14
9.931391719,-84.24040222,30.3333,23,6,21,0
9.931315429,-84.24043273,31.2680,23,6,21,0
9.931240089,-84.24045562,30.1762,23,6,21,0
9.931164749,-84.24047851,30.9561,23,6,21,1
9.931086549,-84.24050903,32.2063,23,6,21,0
9.930919649,-84.24056243,68.1842,23,6,21,570
9.930834779,-84.24059295,34.4075,23,6,21,0
9.930754669,-84.24061584,32.8335,23,6,21,0
9.930680279,-84.24063873,29.8565,23,6,21,285
9.930603029,-84.24066162,31.5804,23,6,21,0
9.930524829,-84.24067687,30.9415,23,6,21,0
9.930372239,-84.24072265,61.3720,23,6,21,0
9.930301669,-84.24073791,28.2894,23,6,21,0
9.930233009,-84.24074554,26.9776,23,6,21,0
9.930165299,-84.24076080,26.7039,23,6,21,0
9.930096629,-84.24076080,26.8508,23,6,21,0
9.930031779,-84.24076843,24.9987,23,6,21,0
9.929971699,-84.24076843,23.5359,23,6,21,0
9.929862979,-84.24077606,42.1804,23,6,21,0
9.929815299,-84.24077606,18.5635,23,6,21,0
9.929764749,-84.24078369,19.7125,23,6,21,0
9.929699899,-84.24078369,25.1689,23,6,21,0
9.929619789,-84.24079132,31.5645,23,6,21,0
9.929530149,-84.24079132,34.7729,23,6,21,0
9.929434779,-84.24079132,37.0911,23,6,21,0
9.929231649,-84.24080657,78.9911,23,6,21,0
9.929133419,-84.24081420,38.1739,23,6,21,0
9.929038049,-84.24081420,36.7599,23,6,21,64
9.928953179,-84.24082183,33.2197,23,6,22,0
9.928877839,-84.24081420,29.2596,23,6,22,0
9.928817749,-84.24081420,23.1819,23,6,22,0
9.928728109,-84.24081420,34.7729,23,6,22,0
9.928683289,-84.24080657,17.7450,23,6,22,0
9.928627969,-84.24080657,21.5261,23,6,22,0
9.928565029,-84.24079895,24.3159,23,6,22,0
9.928500179,-84.24079895,25.1689,23,6,22,0
9.928437239,-84.24079132,24.6451,23,6,22,0
9.928330429,-84.24078369,41.7240,23,6,22,0
9.928284649,-84.24078369,17.8832,23,6,22,0
9.928242689,-84.24077606,16.4358,23,6,22,0
9.928201679,-84.24077606,15.8962,23,6,22,0
9.928165439,-84.24076843,14.1518,23,6,22,0
9.928145409,-84.24076843,7.9481,23,6,22,0
9.928139689,-84.24077606,3.4906,23,6,22,0
9.928152089,-84.24077606,4.9676,23,6,22,0
9.928162579,-84.24077606,3.9740,23,6,22,0
9.928177839,-84.24077606,5.9611,23,6,22,0
9.928197869,-84.24078369,8.3737,23,6,22,0
9.928216939,-84.24079132,8.9711,23,6,22,0
9.928232199,-84.24079132,5.9668,23,6,22,0
9.928244599,-84.24079895,5.3255,23,6,22,0
9.928268439,-84.24080657,9.6423,23,6,22,0
9.928277019,-84.24080657,3.3149,23,6,22,0
9.928277019,-84.24080657,0.0000,23,6,22,0
9.928277019,-84.24080657,0.0000,23,6,22,0
9.928273209,-84.24081420,2.9295,23,6,22,0
9.928270339,-84.24081420,1.3260,23,6,22,0
9.928270339,-84.24082946,5.2244,23,6,22,0
9.928270339,-84.24082946,0.0000,23,6,22,0
9.928268439,-84.24082946,0.6623,23,6,22,0
9.928268439,-84.24082946,0.0000,23,6,22,0
9.928268439,-84.24082946,0.0000,23,6,22,0
9.928268439,-84.24082946,0.0000,23,6,22,0
9.928268439,-84.24082946,0.0000,23,6,22,0
9.928268439,-84.24082946,0.0000,23,6,22,0
9.928268439,-84.24082946,0.0000,23,6,22,0
9.928268439,-84.24082946,0.0000,23,6,22,0
9.928268439,-84.24082946,0.0000,23,6,22,0
9.928268439,-84.24082946,0.0000,23,6,22,0
9.928268439,-84.24082946,0.0000,23,6,22,0
9.928268439,-84.24082946,0.0000,23,6,22,0
9.928268439,-84.24082946,0.0000,23,6,22,0
9.928268439,-84.24082946,0.0000,23,6,22,0
9.928268439,-84.24082946,0.0000,23,6,22,0
9.928268439,-84.24082946,0.0000,23,6,22,0
9.928268439,-84.24082946,0.0000,23,6,22,0
9.928268439,-84.24082946,0.0000,23,6,22,0
9.928268439,-84.24082946,0.0000,23,6,22,0
9.928268439,-84.24082946,0.0000,23,6,22,0
9.928268439,-84.24082946,0.0000,23,6,22,0
9.928268439,-84.24082946,0.0000,23,6,23,0
9.928268439,-84.24082946,0.0000,23,6,23,0
9.928268439,-84.24082946,0.0000,23,6,23,0
9.928268439,-84.24082946,0.0000,23,6,23,0
9.928268439,-84.24082946,0.0000,23,6,23,0
9.928268439,-84.24082946,0.0000,23,6,23,0
9.928268439,-84.24082946,0.0000,23,6,23,0
9.928268439,-84.24082946,0.0000,23,6,23,0
9.928268439,-84.24082946,0.0000,23,6,23,0
9.928268439,-84.24082946,0.0000,23,6,23,0
9.928268439,-84.24082946,0.0000,23,6,23,0
9.928268439,-84.24082946,0.0000,23,6,23,0
9.928268439,-84.24082946,0.0000,23,6,23,0
9.928268439,-84.24082946,0.0000,23,6,23,0
9.928268439,-84.24082946,0.0000,23,6,23,0
9.928268439,-84.24082946,0.0000,23,6,23,0
9.928268439,-84.24082946,0.0000,23,6,23,0
9.928268439,-84.24082946,0.0000,23,6,23,0
9.928268439,-84.24082946,0.0000,23,6,23,0
9.928268439,-84.24082946,0.0000,23,6,23,0
9.928268439,-84.24082946,0.0000,23,6,23,0
9.928268439,-84.24082946,0.0000,23,6,23,0
9.928268439,-84.24082946,0.0000,23,6,23,0
9.928268439,-84.24082946,0.0000,23,6,23,0
9.928268439,-84.24082946,0.0000,23,6,23,0
9.928268439,-84.24082946,0.0000,23,6,23,0
9.928268439,-84.24082946,0.0000,23,6,23,0
9.928268439,-84.24082946,0.0000,23,6,23,0
9.928268439,-84.24082946,0.0000,23,6,23,0
9.928268439,-84.24082946,0.0000,23,6,23,0
9.928268439,-84.24082946,0.0000,23,6,23,0
9.928268439,-84.24082946,0.0000,23,6,23,0
